VERSION .7
FIELDS x y z label object
SIZE 4 4 4 4 4
TYPE F F F I I
COUNT 1 1 1 1 1
WIDTH 1198
HEIGHT 1
POINTS 1198
VIEWPOINT 0 0 0 1 0 0 0
DATA ascii
-0.06810037 -0.011870519 0.54640019 1 -1
-0.06029417 -0.012413014 0.54545212 1 -1
-0.054274015 -0.011056727 0.54805011 1 -1
-0.085896254 -0.0072357296 0.551 1 -1
-0.074852489 -0.0052843303 0.5477438 1 -1
-0.068040468 -0.0037573457 0.54591382 1 -1
-0.06042387 -0.0033494788 0.54471213 1 -1
-0.053289708 -0.003799947 0.54710299 1 -1
-0.067643687 0.003709889 0.54569423 1 -1
-0.059976097 0.0039286213 0.54633337 1 -1
-0.052838013 0.0039923536 0.54815656 1 -1
-0.072911754 0.011270626 0.55050004 1 -1
-0.067759976 0.012163916 0.54547596 1 -1
-0.060163077 0.012078501 0.54805017 1 -1
-0.052807629 0.011849994 0.54909581 1 -1
-0.072690912 0.017452538 0.551 1 -1
-0.067336679 0.018160483 0.54959464 1 -1
-0.059885912 0.019100683 0.54983902 1 -1
-0.052546307 0.020070586 0.5505845 1 -1
-0.050586294 0.02549058 0.551 1 -1
-0.31463829 -0.22088899 0.55966669 0 -1
-0.30806977 -0.21942036 0.55871218 0 -1
-0.29982758 -0.21897784 0.5573464 0 -1
-0.29216114 -0.21918111 0.55787587 0 -1
-0.28413227 -0.21933101 0.55650878 0 -1
-0.27621588 -0.21899164 0.55452657 0 -1
-0.26927137 -0.21844946 0.55263346 0 -1
-0.24362573 -0.2182422 0.55255556 0 -1
-0.23798278 -0.21762067 0.55231255 0 -1
-0.22553734 -0.21813561 0.55441028 0 -1
-0.22301014 -0.22126667 0.55771434 0 -1
-0.31312302 -0.21444651 0.56 0 -1
-0.30829731 -0.21488668 0.55973923 0 -1
-0.29978406 -0.21475381 0.55968195 0 -1
-0.29187068 -0.21438397 0.55952942 0 -1
-0.28375742 -0.21238217 0.55839419 0 -1
-0.2759684 -0.2120602 0.55548108 0 -1
-0.26789406 -0.21182163 0.55307353 0 -1
-0.25981939 -0.21195917 0.55323452 0 -1
-0.2521258 -0.21075244 0.55410147 0 -1
-0.24371296 -0.21146992 0.55398184 0 -1
-0.23592418 -0.21155971 0.5549804 0 -1
-0.22963539 -0.21402425 0.55518371 0 -1
-0.28265271 -0.20447069 0.55918175 0 -1
-0.27587157 -0.2038413 0.5571782 0 -1
-0.26793948 -0.20412326 0.55478954 0 -1
-0.25971624 -0.20373896 0.55367053 0 -1
-0.25205827 -0.2037684 0.55669355 0 -1
-0.24477951 -0.20509812 0.55854535 0 -1
-0.23859942 -0.20727141 0.55930001 0 -1
-0.28102919 -0.19962502 0.56 0 -1
-0.2755276 -0.19751187 0.55897778 0 -1
-0.26793277 -0.1959842 0.55758798 0 -1
-0.25987467 -0.19604051 0.5568071 0 -1
-0.25286803 -0.19710267 0.55865705 0 -1
-0.24769248 -0.19973829 0.55949998 0 -1
-0.26553282 -0.19090524 0.55949998 0 -1
-0.26109332 -0.19079143 0.55932009 0 -1
0.015984435 -0.13120684 0.56 0 -1
0.016844667 -0.13021481 0.55949998 0 -1
0.05408961 -0.10821766 0.55433339 0 -1
0.060281351 -0.10758593 0.55387503 0 -1
0.15837272 -0.088597007 0.55900002 0 -1
0.15719721 -0.087004922 0.56 0 -1
0.22844775 -0.065662377 0.55200005 0 -1
0.2271376 -0.062524416 0.55200005 0 -1
0.19388625 -0.051993489 0.56 0 -1
0.22186115 -0.042117175 0.55673915 0 -1
0.22802271 -0.042615559 0.55630642 0 -1
0.23236695 -0.043167539 0.5546 0 -1
-0.092856154 -0.034148529 0.55500013 1 -1
-0.083811626 -0.033665247 0.5550667 1 -1
-0.076736137 -0.033270098 0.55620003 1 -1
0.21219401 -0.038445313 0.55900002 0 -1
0.2222732 -0.038160309 0.55723536 0 -1
0.2274272 -0.038362689 0.55746877 0 -1
-0.11520993 -0.026247205 0.55236584 1 -1
-0.10807718 -0.026377678 0.55253065 1 -1
-0.10160808 -0.025957586 0.55233341 1 -1
-0.072916575 -0.030918965 0.55428571 1 -1
-0.067745976 -0.027527768 0.55584002 1 -1
-0.062573247 -0.025221376 0.55722225 1 -1
-0.12270056 -0.019116208 0.55451232 1 -1
-0.11558419 -0.020207835 0.55246794 1 -1
-0.10803363 -0.02026711 0.5541116 1 -1
-0.10187081 -0.020602213 0.55262506 1 -1
-0.059142917 -0.021009291 0.55519354 1 -1
-0.054793522 -0.017452462 0.55718189 1 -1
-0.12989183 -0.010617087 0.5594517 1 -1
-0.12389894 -0.012125575 0.55680484 1 -1
-0.11572043 -0.011957244 0.55405462 1 -1
-0.10810515 -0.012044227 0.55560446 1 -1
-0.10119071 -0.01185558 0.55364287 1 -1
-0.051567934 -0.011778004 0.5559231 1 -1
-0.13208473 -0.0067703929 0.56 1 -1
-0.12245262 -0.0041580205 0.55970597 1 -1
-0.11587258 -0.0042403117 0.55948323 1 -1
-0.1087981 -0.0059171873 0.55905712 1 -1
-0.10308922 -0.0071219644 0.55900002 1 -1
-0.049383659 -0.0040813354 0.55493331 1 -1
-0.047420517 -0.0022585294 0.55890912 1 -1
-0.12126037 0.00087376853 0.56 1 -1
-0.11764252 0.0010342376 0.56 1 -1
-0.04908146 0.0038468712 0.55384624 1 -1
-0.047095705 0.0036151796 0.55836374 1 -1
-0.048899647 0.012159291 0.55363649 1 -1
-0.047256656 0.012049888 0.55826324 1 -1
-0.080778368 0.022116376 0.55900002 1 -1
-0.075334616 0.021504603 0.55381626 1 -1
-0.068361387 0.022055672 0.55266666 1 -1
-0.060320638 0.023036372 0.55244017 1 -1
-0.050123785 0.020177135 0.55256677 1 -1
-0.046870843 0.018485988 0.55633336 1 -1
-0.090583816 0.030310549 0.55865389 1 -1
-0.083717369 0.028923698 0.55766141 1 -1
-0.076109551 0.028299913 0.55574673 1 -1
-0.068062641 0.028335905 0.55543369 1 -1
-0.060048323 0.02816125 0.55531329 1 -1
-0.053624842 0.026165338 0.55308348 1 -1
-0.13903572 0.039438628 0.55949998 1 -1
-0.090829298 0.034520421 0.55950004 1 -1
-0.084163755 0.033905126 0.55890924 1 -1
-0.075152829 0.035778046 0.55885923 1 -1
-0.067743637 0.03624985 0.55751818 1 -1
-0.06147759 0.034336299 0.55633336 1 -1
-0.13958205 0.04350524 0.5594849 1 -1
-0.073518351 0.041465022 0.55969995 1 -1
-0.068109259 0.042437546 0.55895126 1 -1
-0.062890202 0.0410036 0.55700004 1 -1
-0.34656855 -0.22504884 0.56541669 0 -1
-0.33959299 -0.22499329 0.56472224 0 -1
-0.33287683 -0.22501786 0.56545001 0 -1
-0.32551157 -0.22454751 0.5625 0 -1
-0.22000982 -0.22488119 0.56428576 0 -1
-0.34714127 -0.21989845 0.56593442 0 -1
-0.33985457 -0.21994898 0.56443715 0 -1
-0.33199024 -0.21962342 0.56416184 0 -1
-0.32391182 -0.22011255 0.56252706 0 -1
-0.31789175 -0.21919867 0.56125015 0 -1
-0.22596607 -0.21807972 0.56421423 0 -1
-0.22185439 -0.22175938 0.56417143 0 -1
-0.3470473 -0.21230903 0.56688452 0 -1
-0.34000111 -0.21184994 0.56596434 0 -1
-0.33200923 -0.2119782 0.56527907 0 -1
-0.32408753 -0.21209115 0.56384397 0 -1
-0.31610042 -0.21119681 0.56216466 0 -1
-0.3078807 -0.21124524 0.56240737 0 -1
-0.30014962 -0.21104369 0.56214714 0 -1
-0.29215106 -0.21061628 0.5613575 0 -1
-0.28737673 -0.2094807 0.56100005 0 -1
-0.23394908 -0.20988876 0.56376469 0 -1
-0.22996882 -0.21405636 0.56429631 0 -1
-0.34615791 -0.20689023 0.56691664 0 -1
-0.3416447 -0.20703223 0.56674999 0 -1
-0.328558 -0.20773311 0.56700003 0 -1
-0.32276288 -0.20536894 0.56629163 0 -1
-0.31606054 -0.2042626 0.56604558 0 -1
-0.30792797 -0.20390867 0.56509513 0 -1
-0.30009502 -0.20400713 0.56382632 0 -1
-0.29203638 -0.2038468 0.56256819 0 -1
-0.28623632 -0.20287007 0.56162959 0 -1
-0.2428343 -0.20236817 0.56313795 0 -1
-0.23784332 -0.20537639 0.56454158 0 -1
0.013051067 -0.2050623 0.56575 0 -1
0.019240977 -0.20550659 0.56575 0 -1
-0.31437835 -0.19975705 0.56700003 0 -1
-0.30718359 -0.19889516 0.56695467 0 -1
-0.29953325 -0.19685665 0.5660001 0 -1
-0.29222745 -0.19634299 0.56576151 0 -1
-0.28397268 -0.19551428 0.56401235 0 -1
-0.27663442 -0.19397765 0.5625478 0 -1
-0.27071658 -0.19267444 0.56100005 0 -1
-0.25115842 -0.19445603 0.56309092 0 -1
-0.24651766 -0.1982926 0.56388241 0 -1
-0.2911149 -0.19122715 0.56699997 0 -1
-0.28383631 -0.19014034 0.56679994 0 -1
-0.27588838 -0.18857896 0.56623966 0 -1
-0.26819682 -0.18764345 0.56436586 0 -1
-0.25999966 -0.18830049 0.56429631 0 -1
-0.25480288 -0.19103353 0.56479996 0 -1
-0.2737892 -0.18345051 0.56700003 0 -1
-0.2713964 -0.18380499 0.56700003 0 -1
0.11701467 -0.098857112 0.56681818 0 -1
0.12341769 -0.096954748 0.56699997 0 -1
0.12917817 -0.096068524 0.56700003 0 -1
0.12512493 -0.094578072 0.56630003 0 -1
0.13167928 -0.091620862 0.56651735 0 -1
0.13671109 -0.088092484 0.56700003 0 -1
0.14894085 -0.088578679 0.56633335 0 -1
0.15334614 -0.088790983 0.56300002 0 -1
0.13462184 -0.087590449 0.56566668 0 -1
0.14072154 -0.084893577 0.56634218 0 -1
0.14782421 -0.084455445 0.56449199 0 -1
0.15333526 -0.085542351 0.56188893 0 -1
0.14196526 -0.07498727 0.56674999 0 -1
0.1485298 -0.074571162 0.5659743 0 -1
0.15212467 -0.072769038 0.565 0 -1
0.15001765 -0.068039805 0.56684852 0 -1
0.15430136 -0.067399666 0.56559992 0 -1
0.15177694 -0.063278139 0.56700003 0 -1
0.15730721 -0.060427841 0.56677073 0 -1
0.16308306 -0.058802754 0.56598216 0 -1
0.16940929 -0.056537218 0.56542861 0 -1
0.15975299 -0.055302091 0.56700003 0 -1
0.16477495 -0.05352965 0.56700015 0 -1
0.17121281 -0.051617138 0.56637037 0 -1
0.18006465 -0.048838723 0.56400001 0 -1
0.18860681 -0.049476188 0.56219047 0 -1
0.19225958 -0.049894217 0.56100005 0 -1
0.16967873 -0.046971567 0.56700003 0 -1
0.18103884 -0.044710148 0.56540346 0 -1
0.18804103 -0.044188783 0.56503296 0 -1
0.19318967 -0.043012105 0.56379408 0 -1
-0.09417703 -0.036972664 0.56450003 1 -1
-0.083589211 -0.036089953 0.56450003 1 -1
-0.076219358 -0.034794874 0.56411767 1 -1
0.18918635 -0.038911324 0.56491667 0 -1
0.19427577 -0.038158078 0.56379998 0 -1
0.20156984 -0.032051574 0.56333333 0 -1
-0.072548747 -0.031918816 0.56100005 1 -1
-0.067416735 -0.029027306 0.56376928 1 -1
-0.061265171 -0.026012266 0.56427282 1 -1
0.19817121 -0.028739557 0.56499994 0 -1
0.20405807 -0.027434114 0.56482339 0 -1
0.21255314 -0.024311414 0.5625 0 -1
0.21631941 -0.024070006 0.56200004 0 -1
-0.057683561 -0.02187603 0.56333333 1 -1
-0.053413667 -0.01800685 0.56464285 1 -1
0.19831398 -0.020734832 0.56688887 0 -1
0.20486449 -0.02085204 0.5665369 0 -1
0.21217589 -0.019284712 0.5649479 0 -1
0.21723965 -0.020010592 0.56405002 0 -1
-0.049368095 -0.012421832 0.56360877 1 -1
-0.047299113 -0.0097112218 0.56614292 1 -1
0.205668 -0.013860434 0.56700009 0 -1
0.21169446 -0.014148054 0.56686676 0 -1
0.21608974 -0.015394685 0.56600004 0 -1
-0.13089088 -0.00323364 0.56170022 1 -1
-0.12514368 -0.0037931667 0.56112838 1 -1
-0.11637128 -0.0025444988 0.56108326 1 -1
-0.10811847 -0.0028005806 0.56348789 1 -1
-0.10297489 -0.0061647263 0.56340009 1 -1
-0.048082538 -0.0073801819 0.56200004 1 -1
-0.045957126 -0.0039099324 0.56390625 1 -1
-0.13182463 0.004141395 0.56358188 1 -1
-0.12408204 0.004390798 0.56232405 1 -1
-0.11569647 0.0044117821 0.56229722 1 -1
-0.1109871 0.0040684342 0.56590331 1 -1
-0.04507054 0.0040801293 0.56337935 1 -1
-0.13612664 0.013369862 0.56650001 1 -1
-0.13199699 0.01190922 0.5651865 1 -1
-0.1239181 0.011973262 0.5633207 1 -1
-0.11586846 0.011957991 0.56271601 1 -1
-0.11033777 0.01231294 0.56517065 1 -1
-0.045481928 0.011979781 0.5636667 1 -1
-0.13612664 0.019565245 0.56650001 1 -1
-0.13189222 0.020154754 0.56609124 1 -1
-0.12400283 0.019827766 0.56453234 1 -1
-0.11577718 0.019860812 0.56227165 1 -1
-0.10857074 0.020293849 0.56418061 1 -1
-0.10301328 0.023572098 0.56700003 1 -1
-0.083582163 0.021647966 0.56414288 1 -1
-0.045247134 0.017002232 0.56225002 1 -1
-0.13221627 0.027396133 0.56550694 1 -1
-0.12352164 0.025720512 0.56651741 1 -1
-0.11596797 0.027806979 0.56528938 1 -1
-0.10802468 0.027800089 0.56354409 1 -1
-0.10035203 0.028246637 0.56333327 1 -1
-0.092223868 0.027735662 0.5636667 1 -1
-0.086005293 0.025396569 0.56257141 1 -1
-0.14529099 0.038887914 0.56328577 1 -1
-0.13975486 0.039579213 0.56150007 1 -1
-0.13215135 0.038153302 0.56264275 1 -1
-0.12260538 0.037416417 0.56552947 1 -1
-0.11613886 0.035976019 0.56564885 1 -1
-0.1082157 0.035794951 0.5640859 1 -1
-0.10003422 0.035705607 0.56269127 1 -1
-0.092926338 0.03719753 0.56106848 1 -1
-0.083890103 0.037594873 0.56204891 1 -1
-0.078341171 0.038306542 0.56121433 1 -1
-0.14615288 0.042459276 0.56333333 1 -1
-0.14044708 0.043007307 0.56148154 1 -1
-0.13179235 0.043777041 0.56320459 1 -1
-0.12471768 0.043167893 0.5644384 1 -1
-0.11582591 0.041786913 0.56523317 1 -1
-0.10799222 0.043605622 0.56514263 1 -1
-0.10000837 0.043752369 0.56447512 1 -1
-0.091898017 0.043851841 0.56384617 1 -1
-0.084148757 0.043563776 0.56324339 1 -1
-0.07653565 0.044400435 0.56189877 1 -1
-0.07055258 0.046306372 0.56125003 1 -1
-0.13021639 0.048398182 0.56200004 1 -1
-0.10666398 0.049041897 0.56494111 1 -1
-0.099996932 0.0491344 0.56575853 1 -1
-0.091785133 0.049192317 0.56607407 1 -1
-0.083925724 0.049371485 0.56423074 1 -1
-0.076744117 0.048925072 0.56300002 1 -1
-0.071005896 0.048896104 0.56266671 1 -1
-0.21940921 -0.2258866 0.57183331 0 -1
-0.35445195 -0.21747461 0.56930006 0 -1
-0.35133222 -0.21653348 0.56800002 0 -1
-0.22581159 -0.21735388 0.57117254 0 -1
-0.2212497 -0.22098905 0.5714469 0 -1
-0.36200804 -0.21059185 0.57311547 0 -1
-0.35605767 -0.21184051 0.57029301 0 -1
-0.35089853 -0.21130662 0.56805873 0 -1
-0.33712757 -0.20809948 0.56800002 0 -1
-0.33298421 -0.20825624 0.56812501 0 -1
-0.2332848 -0.20953822 0.57144994 0 -1
-0.22989339 -0.21335517 0.5713864 0 -1
-0.36914301 -0.20347425 0.57500011 0 -1
-0.36333027 -0.20485611 0.57452941 0 -1
-0.35570061 -0.20389408 0.57285136 0 -1
-0.34825429 -0.20358217 0.57107908 0 -1
-0.33980164 -0.20397441 0.57048863 0 -1
-0.3324936 -0.20442294 0.57058311 0 -1
-0.32523003 -0.20239195 0.5684706 0 -1
-0.31645474 -0.20010936 0.56800002 0 -1
-0.24186471 -0.20081477 0.57115 0 -1
-0.23719957 -0.20480636 0.57114297 0 -1
0.014894592 -0.20650552 0.56850004 0 -1
0.018644115 -0.2070936 0.57160002 0 -1
-0.35390839 -0.1988581 0.57484615 0 -1
-0.34782878 -0.1959282 0.5735594 0 -1
-0.34029794 -0.19566433 0.5720821 0 -1
-0.33200285 -0.19587861 0.57081354 0 -1
-0.3239848 -0.19593057 0.57038605 0 -1
-0.31599972 -0.19591308 0.56999993 0 -1
-0.3082841 -0.19536974 0.56880718 0 -1
-0.30098262 -0.19313395 0.56826085 0 -1
-0.25124538 -0.19457121 0.57185709 0 -1
-0.24563141 -0.19876947 0.57147825 0 -1
-0.12019452 -0.19942996 0.57500005 1 -1
-0.11929578 -0.19942996 0.57500005 1 -1
-0.34641698 -0.18813919 0.57426471 0 -1
-0.33981469 -0.18776661 0.57310182 0 -1
-0.33181754 -0.18793401 0.57352322 0 -1
-0.32388243 -0.18816145 0.57355094 0 -1
-0.31595859 -0.18836278 0.5724287 0 -1
-0.30774131 -0.18791834 0.57022756 0 -1
-0.3002542 -0.18823031 0.56952053 0 -1
-0.29237622 -0.18742505 0.56863397 0 -1
-0.28439334 -0.18622404 0.56857485 0 -1
-0.2782785 -0.18504398 0.56808329 0 -1
-0.26743606 -0.18412913 0.56800002 0 -1
-0.25853616 -0.18611969 0.57057452 0 -1
-0.25504169 -0.19053607 0.57106668 0 -1
-0.34540135 -0.18339761 0.57475007 0 -1
-0.34019706 -0.18326499 0.57427275 0 -1
-0.33234239 -0.18318187 0.57499993 0 -1
-0.32308197 -0.18075939 0.57462507 0 -1
-0.31565818 -0.17981215 0.57319784 0 -1
-0.30800733 -0.18013161 0.57207882 0 -1
-0.29987901 -0.17983194 0.57049978 0 -1
-0.29202136 -0.18009502 0.57048446 0 -1
-0.28408656 -0.18012705 0.57096475 0 -1
-0.27588734 -0.17969616 0.5696463 0 -1
-0.26802841 -0.17976704 0.57065398 0 -1
-0.26209357 -0.18196407 0.57199997 0 -1
-0.32061151 -0.1756136 0.57500005 0 -1
-0.31569013 -0.17482381 0.57473683 0 -1
-0.30785951 -0.17409225 0.5741021 0 -1
-0.29994801 -0.17342198 0.57380319 0 -1
-0.29190102 -0.17242153 0.57376581 0 -1
-0.28388408 -0.17181164 0.57328922 0 -1
-0.27635026 -0.17319368 0.57361996 0 -1
-0.27013358 -0.17479822 0.57423532 0 -1
-0.28985447 -0.16709824 0.57485718 0 -1
-0.28470898 -0.16708785 0.57473332 0 -1
0.10798696 -0.10112133 0.57105553 0 -1
0.11487295 -0.10127551 0.56921428 0 -1
0.12629873 -0.097125746 0.56800002 0 -1
0.13083878 -0.096817873 0.56842864 0 -1
0.13426919 -0.093330018 0.5686667 0 -1
0.13990109 -0.091222659 0.56857407 0 -1
0.14557925 -0.090928867 0.56882614 0 -1
0.14094727 -0.087360062 0.56800002 0 -1
0.1410908 -0.073058903 0.5684706 0 -1
0.1459029 -0.073001646 0.56828576 0 -1
0.14186518 -0.069988765 0.56871444 0 -1
0.14615205 -0.069675326 0.56833339 0 -1
0.16624928 -0.051996429 0.56799996 0 -1
0.16891263 -0.052171301 0.56799996 0 -1
-0.090950184 -0.037245207 0.57139999 1 -1
-0.083591253 -0.037957121 0.57158339 1 -1
-0.075433552 -0.036102049 0.57168424 1 -1
-0.071286015 -0.032544672 0.57200003 1 -1
-0.067476422 -0.030553836 0.57153338 1 -1
-0.060878005 -0.027256945 0.57106668 1 -1
-0.057725176 -0.023096507 0.57050002 1 -1
-0.051895149 -0.018631652 0.57223815 1 -1
0.19812064 -0.017614966 0.56806248 0 -1
0.20306076 -0.018118473 0.56819355 0 -1
-0.048672169 -0.015174 0.57099998 1 -1
-0.045661528 -0.011582159 0.57174993 1 -1
0.1990975 -0.015449082 0.56800002 0 -1
0.2057559 -0.012785713 0.56800002 0 -1
0.21102679 -0.010767359 0.56813788 0 -1
-0.10603283 -0.0018638533 0.57075 1 -1
-0.10337663 -0.0052487236 0.56900001 1 -1
-0.043854564 -0.0045825755 0.57145458 1 -1
0.20460699 -0.0031507949 0.57168508 0 -1
0.20895988 -0.0050201686 0.57041186 0 -1
-0.10754985 0.004350544 0.57059646 1 -1
-0.04317072 0.0043888208 0.57100004 1 -1
0.19875826 0.0044204122 0.57300001 0 -1
0.20274799 0.0021016356 0.5726667 0 -1
-0.13915044 0.012072403 0.56800002 1 -1
-0.10647702 0.011901683 0.57010341 1 -1
-0.10218656 0.013733641 0.57326925 1 -1
-0.043633599 0.011370796 0.57114291 1 -1
-0.1051555 0.01865869 0.56920826 1 -1
-0.10082744 0.020340433 0.57238466 1 -1
-0.091095589 0.022985034 0.57317644 1 -1
-0.086677901 0.021143075 0.57090008 1 -1
-0.12878291 0.029328616 0.56814289 1 -1
-0.1245417 0.029563589 0.5689376 1 -1
-0.11961906 0.03160378 0.56800002 1 -1
-0.098321155 0.025254847 0.57000005 1 -1
-0.093289554 0.025318617 0.57018751 1 -1
-0.1233109 0.033378348 0.56888241 1 -1
-0.22081199 -0.2323318 0.58200002 0 -1
-0.21920024 -0.22712228 0.57969236 0 -1
-0.22563829 -0.21732576 0.57952642 0 -1
-0.2209767 -0.22096719 0.57954061 0 -1
-0.36835864 -0.21085978 0.57800001 0 -1
-0.23356083 -0.209273 0.57957149 0 -1
-0.22959876 -0.21341003 0.57925707 0 -1
0.017341429 -0.20832959 0.57600003 0 -1
-0.36994982 -0.20125152 0.57635725 0 -1
-0.36502454 -0.20157135 0.57622236 0 -1
-0.35943162 -0.20022695 0.57600003 0 -1
-0.24215646 -0.20115121 0.57928574 0 -1
-0.23741721 -0.20551986 0.5795455 0 -1
-0.13777283 -0.2008173 0.57900006 1 -1
-0.12400472 -0.20022695 0.57600003 1 -1
0.012884541 -0.20724609 0.57800001 0 -1
-0.37736699 -0.19391558 0.57900012 0 -1
-0.37158355 -0.19574015 0.57838982 0 -1
-0.36398309 -0.19592853 0.57793719 0 -1
-0.35677126 -0.19565783 0.57711923 0 -1
-0.35155404 -0.19279951 0.57600003 0 -1
-0.25628921 -0.19230624 0.58200002 0 -1
-0.25182781 -0.19594392 0.57994729 0 -1
-0.24607438 -0.19915126 0.58005261 0 -1
-0.15315251 -0.19400348 0.583 1 -1
-0.1490723 -0.19361244 0.5824815 1 -1
-0.14348987 -0.19230624 0.58200002 1 -1
-0.12804897 -0.19550164 0.57800001 1 -1
-0.12363084 -0.19664866 0.57660002 1 -1
-0.11950325 -0.19572547 0.57600003 1 -1
-0.37872922 -0.18866786 0.58151948 0 -1
-0.37206012 -0.18801281 0.58168632 0 -1
-0.36385271 -0.18776014 0.58061272 0 -1
-0.35614103 -0.18819658 0.57927954 0 -1
-0.35004169 -0.18761775 0.57640004 0 -1
-0.25796196 -0.1876376 0.57975763 0 -1
-0.25544766 -0.19122399 0.57600003 0 -1
-0.15284877 -0.19172542 0.583 1 -1
-0.14752524 -0.18832771 0.5825305 1 -1
-0.14307411 -0.1875523 0.5827778 1 -1
-0.37686062 -0.18301339 0.58080006 0 -1
-0.37164745 -0.18081433 0.58201647 0 -1
-0.36474437 -0.18028161 0.58278143 0 -1
-0.35578296 -0.18120734 0.58115101 0 -1
-0.34783512 -0.18012096 0.57971257 0 -1
-0.34022361 -0.17982729 0.57840908 0 -1
-0.33186111 -0.17914449 0.5765624 0 -1
-0.32633403 -0.17857251 0.57600009 0 -1
-0.26545757 -0.17746675 0.57972741 0 -1
-0.26178095 -0.1813717 0.57941937 0 -1
-0.14647011 -0.18306866 0.58300006 1 -1
-0.14373642 -0.1835243 0.583 1 -1
-0.3686125 -0.1754784 0.58125007 0 -1
-0.36465394 -0.17379728 0.58260012 0 -1
-0.35773998 -0.17090373 0.58300006 0 -1
-0.34578487 -0.17290506 0.58275002 0 -1
-0.33989218 -0.17193192 0.58101463 0 -1
-0.33199611 -0.17203246 0.57889748 0 -1
-0.32399112 -0.17225648 0.57718903 0 -1
-0.3163434 -0.17090459 0.57695568 0 -1
-0.30807903 -0.16995336 0.57665908 0 -1
-0.30022389 -0.16928537 0.57640624 0 -1
-0.29528564 -0.16894171 0.57600003 0 -1
-0.27505639 -0.16997941 0.57856858 0 -1
-0.26925692 -0.17359103 0.57894886 0 -1
-0.34420812 -0.16074343 0.583 0 -1
-0.33974215 -0.16389705 0.58246899 0 -1
-0.33177215 -0.16412137 0.58007705 0 -1
-0.32371819 -0.16359344 0.57863122 0 -1
-0.31623834 -0.16399206 0.57970715 0 -1
-0.30815536 -0.16402113 0.57985198 0 -1
-0.29989907 -0.16381665 0.57843024 0 -1
-0.29225004 -0.16345431 0.57844329 0 -1
-0.28405595 -0.16384694 0.57890695 0 -1
-0.27868015 -0.1666612 0.57946157 0 -1
-0.3387374 -0.1584882 0.5826667 0 -1
-0.33156621 -0.15633054 0.58130527 0 -1
-0.32405561 -0.15602452 0.58068472 0 -1
-0.31716213 -0.15673542 0.58280015 0 -1
-0.30826968 -0.15704916 0.5819636 0 -1
-0.30060309 -0.15892509 0.58160609 0 -1
-0.29275054 -0.15950964 0.58284622 0 -1
-0.28725591 -0.15983219 0.583 0 -1
-0.10364208 -0.15254231 0.583 1 -1
-0.33010539 -0.15037552 0.58270591 0 -1
-0.32396477 -0.14958477 0.58204877 0 -1
-0.31892958 -0.15079837 0.5826 0 -1
-0.1029131 -0.15108433 0.583 1 -1
-0.086790934 -0.14903773 0.58000004 1 -1
-0.078464888 -0.13688387 0.58100003 1 -1
-0.082164228 -0.13141073 0.58265531 1 -1
-0.079381116 -0.13207601 0.58216667 1 -1
-0.082683675 -0.12793897 0.583 1 -1
0.11028805 -0.10543256 0.57950008 0 -1
0.11387023 -0.10497771 0.57700002 0 -1
0.11052185 -0.10389548 0.57600003 0 -1
-0.088151082 -0.040460411 0.583 1 -1
-0.083711743 -0.040295586 0.58062506 1 -1
-0.078378975 -0.040356312 0.58149999 1 -1
-0.092075184 -0.038876604 0.57975 1 -1
-0.084941961 -0.039119538 0.57666665 1 -1
-0.074955404 -0.037805486 0.57934791 1 -1
-0.069321863 -0.033331517 0.58050001 1 -1
-0.065710261 -0.03130468 0.57800001 1 -1
-0.060020987 -0.028043468 0.57977283 1 -1
-0.056979414 -0.023551755 0.57800001 1 -1
-0.051603943 -0.020330328 0.57921052 1 -1
-0.046613339 -0.01790351 0.57964283 1 -1
-0.042954497 -0.011957679 0.57925814 1 -1
-0.10518095 -0.0016705518 0.57922226 1 -1
-0.042122327 -0.0051525147 0.57882357 1 -1
-0.10589304 0.0017868666 0.57912499 1 -1
-0.041432876 0.0045015155 0.57908338 1 -1
-0.10060699 0.013090779 0.57866675 1 -1
-0.080306418 0.015926132 0.57900006 1 -1
-0.041735273 0.01051393 0.57992309 1 -1
0.19142993 0.013165548 0.57700002 0 -1
-0.097323932 0.01995899 0.57796156 1 -1
-0.092756294 0.020657087 0.57908583 1 -1
-0.086154401 0.01828884 0.57940006 1 -1
-0.2204061 -0.23348676 0.58785719 0 -1
-0.21838751 -0.22776799 0.58764517 0 -1
-0.19300558 -0.22636826 0.58539999 0 -1
-0.19154769 -0.22621451 0.58500004 0 -1
-0.22585192 -0.21744443 0.58759093 0 -1
-0.22114302 -0.22103907 0.58725005 0 -1
-0.23323004 -0.20944269 0.58742857 0 -1
-0.22959682 -0.2134642 0.58753842 0 -1
-0.24173641 -0.2016062 0.58714283 0 -1
-0.23746741 -0.20544802 0.58783716 0 -1
-0.25640041 -0.19252726 0.58600008 0 -1
-0.25188872 -0.19474126 0.58733338 0 -1
-0.24609822 -0.19792707 0.58797371 0 -1
-0.16949651 -0.19354954 0.58700001 1 -1
-0.16380501 -0.19543263 0.58483547 1 -1
-0.15691927 -0.19395448 0.5845806 1 -1
-0.25830606 -0.18804558 0.58774465 0 -1
-0.25534433 -0.19167586 0.5903334 0 -1
-0.17706597 -0.18583649 0.59083337 1 -1
-0.17105794 -0.18761173 0.58701926 1 -1
-0.16375661 -0.18770428 0.58417362 1 -1
-0.15615621 -0.18775606 0.58479172 1 -1
-0.15087968 -0.18637463 0.58400005 1 -1
-0.14215738 -0.1847519 0.58400005 1 -1
-0.36193886 -0.1779059 0.58399993 0 -1
-0.35601115 -0.17749453 0.58403689 0 -1
-0.35027537 -0.17699313 0.58400005 0 -1
-0.2659677 -0.17764731 0.58784217 0 -1
-0.26187387 -0.1813484 0.58759999 0 -1
-0.17712286 -0.1806321 0.59014291 1 -1
-0.17170286 -0.18018304 0.58752131 1 -1
-0.1639199 -0.17980406 0.58592474 1 -1
-0.1559802 -0.17981386 0.58520949 1 -1
-0.14879274 -0.18021454 0.58496517 1 -1
-0.14288791 -0.18251285 0.5842728 1 -1
-0.36285847 -0.17192385 0.58456665 0 -1
-0.3552326 -0.17218332 0.58399975 0 -1
-0.34918857 -0.1711034 0.58399975 0 -1
-0.27424559 -0.1697931 0.58717394 0 -1
-0.26976553 -0.17379366 0.58733326 0 -1
-0.16253117 -0.17266828 0.58963823 1 -1
-0.15627131 -0.17226453 0.58841056 1 -1
-0.15140249 -0.17590776 0.588 1 -1
-0.36124158 -0.16738155 0.5855 0 -1
-0.35522923 -0.16460536 0.58436638 0 -1
-0.34811443 -0.16383123 0.58412647 0 -1
-0.34388575 -0.16406181 0.58400005 0 -1
-0.28213587 -0.16204503 0.58687174 0 -1
-0.27838165 -0.1662789 0.58723998 0 -1
-0.16118142 -0.16595133 0.59100002 1 -1
-0.1573246 -0.16522865 0.59089452 1 -1
-0.35293242 -0.15878038 0.58500004 0 -1
-0.34733358 -0.15642545 0.58503485 0 -1
-0.34062505 -0.15504174 0.58512717 0 -1
-0.33500543 -0.15330373 0.58416677 0 -1
-0.31586045 -0.15481143 0.58423674 0 -1
-0.30740353 -0.15360941 0.5849511 0 -1
-0.29976133 -0.15509838 0.58652508 0 -1
-0.29225606 -0.1563208 0.58731169 0 -1
-0.28566232 -0.15835623 0.58786494 0 -1
-0.34544435 -0.15118486 0.58716667 0 -1
-0.33972448 -0.14885591 0.58684611 0 -1
-0.33220741 -0.14686926 0.58521652 0 -1
-0.32368124 -0.14617382 0.58573472 0 -1
-0.31591833 -0.14779051 0.58571208 0 -1
-0.30768025 -0.14783947 0.58637077 0 -1
-0.30078 -0.14881994 0.58883601 0 -1
-0.29535452 -0.15186431 0.59100002 0 -1
-0.10473265 -0.15006557 0.58400005 1 -1
-0.10381985 -0.14869639 0.58400005 1 -1
-0.33613154 -0.14374101 0.588 0 -1
-0.3310965 -0.14101334 0.58922642 0 -1
-0.32394671 -0.14031506 0.58896196 0 -1
-0.31626704 -0.14035635 0.58929151 0 -1
-0.30891192 -0.14212425 0.5896889 0 -1
-0.32306999 -0.13521442 0.5905 0 -1
-0.3191911 -0.13546811 0.59066671 0 -1
-0.10676875 -0.13079756 0.58765799 1 -1
-0.10067239 -0.13069804 0.5862565 1 -1
-0.084870391 -0.12889276 0.58411115 1 -1
-0.10630665 -0.12664939 0.58877784 1 -1
-0.10125542 -0.12627162 0.5878334 1 -1
-0.084427871 -0.12706189 0.58455563 1 -1
-0.056740344 -0.088598013 0.588 0 -1
-0.045601659 -0.065692782 0.59023076 0 -1
-0.048716187 -0.063185357 0.59100002 0 -1
-0.046406839 -0.063185357 0.59100002 0 -1
-0.09658692 -0.040024038 0.59000003 1 -1
-0.09038154 -0.04142715 0.58862501 1 -1
-0.083945982 -0.042084746 0.58694118 1 -1
-0.075710244 -0.041838095 0.58836359 1 -1
-0.070233233 -0.040856771 0.59037507 1 -1
-0.094261341 -0.039516259 0.58700007 1 -1
-0.072718427 -0.038939655 0.58557141 1 -1
-0.068146415 -0.036150638 0.58805555 1 -1
-0.061722185 -0.033580683 0.5892778 1 -1
-0.058414344 -0.028991599 0.58780771 1 -1
-0.053702306 -0.024528703 0.58944446 1 -1
0.08628168 -0.028875047 0.59100002 0 -1
-0.050430864 -0.022328321 0.5866316 1 -1
-0.045971807 -0.020370889 0.58788246 1 -1
-0.041064844 -0.012529158 0.58640003 1 -1
-0.039385278 -0.01050884 0.58960003 1 -1
-0.10475876 -0.0017477882 0.58800006 1 -1
-0.10396432 -0.0040591732 0.59000003 1 -1
-0.040579747 -0.0041444511 0.5872941 1 -1
-0.039411996 -0.0068246596 0.59000003 1 -1
-0.10503709 0.0023858284 0.58741671 1 -1
-0.10361189 0.0079022367 0.588 1 -1
-0.040314753 0.0027240275 0.58637506 1 -1
-0.039258007 0.0052151973 0.5887143 1 -1
-0.099694185 0.012444659 0.58761907 1 -1
-0.091078721 0.014630382 0.59015799 1 -1
-0.084815003 0.013857791 0.58982611 1 -1
-0.041074753 0.011303037 0.58742857 1 -1
-0.096432 0.016404605 0.58533335 1 -1
-0.092459925 0.017331623 0.58683336 1 -1
-0.085882068 0.016506582 0.58679998 1 -1
-0.22566314 -0.21725553 0.5934546 0 -1
-0.22161363 -0.22071189 0.59254545 0 -1
-0.23282818 -0.20896573 0.59473336 0 -1
-0.22966176 -0.21247666 0.59473532 0 -1
0.017404862 -0.21280375 0.59350002 0 -1
-0.24155834 -0.2010068 0.59525001 0 -1
-0.23652439 -0.20496717 0.59532011 0 -1
-0.25017655 -0.1930791 0.59484619 0 -1
-0.24552576 -0.1970681 0.59522521 0 -1
-0.25810802 -0.187419 0.59505564 0 -1
-0.25403336 -0.19100513 0.59592599 0 -1
-0.17934231 -0.18527873 0.59224999 1 -1
-0.26650146 -0.17760837 0.59556001 0 -1
-0.26157543 -0.18163045 0.59514296 0 -1
-0.1788089 -0.17985485 0.59273338 1 -1
-0.17296427 -0.17681807 0.59233332 1 -1
-0.27487141 -0.17047967 0.59580004 0 -1
-0.27063835 -0.1745469 0.59531248 0 -1
-0.17662235 -0.17584589 0.59400004 1 -1
-0.16572532 -0.17083596 0.59250003 1 -1
-0.28152272 -0.1621331 0.5952 0 -1
-0.27861106 -0.1662164 0.59510005 0 -1
-0.16854978 -0.16544703 0.59500003 1 -1
-0.16422157 -0.16407335 0.59299999 1 -1
-0.15669705 -0.16188984 0.59210527 1 -1
-0.29129919 -0.15374352 0.59530967 0 -1
-0.28536123 -0.15701202 0.5956499 0 -1
-0.17188081 -0.15394874 0.5982399 1 -1
-0.16239259 -0.15589665 0.59490484 1 -1
-0.15775284 -0.15624472 0.5937857 1 -1
-0.29961601 -0.14710583 0.59525007 0 -1
-0.29521832 -0.15113235 0.59592861 0 -1
-0.17075193 -0.14840779 0.59860891 1 -1
-0.16432273 -0.14801535 0.59738457 1 -1
-0.15644415 -0.14771165 0.59467655 1 -1
-0.14954956 -0.14551869 0.59482366 1 -1
-0.33287555 -0.13786584 0.59387505 0 -1
-0.31372789 -0.13694775 0.59357905 0 -1
-0.30804059 -0.14006516 0.59508622 0 -1
-0.30369601 -0.14348729 0.59650004 0 -1
-0.16827852 -0.14362133 0.59900004 1 -1
-0.16334407 -0.14234054 0.59846151 1 -1
-0.15561624 -0.14044388 0.59605896 1 -1
-0.14954506 -0.14038795 0.59540915 1 -1
-0.32943514 -0.13419402 0.59499997 0 -1
-0.32338428 -0.13211907 0.59439528 0 -1
-0.31683958 -0.13338155 0.59547073 0 -1
-0.15285194 -0.13487606 0.598625 1 -1
-0.15068376 -0.13435149 0.59837502 1 -1
-0.13621846 -0.12235126 0.59800005 1 -1
-0.13142821 -0.12288287 0.59506518 1 -1
-0.12697057 -0.12174521 0.59471434 1 -1
-0.13644624 -0.119279 0.59900004 1 -1
-0.13152358 -0.11754333 0.59688091 1 -1
-0.12694846 -0.11871403 0.59616667 1 -1
-0.049723916 -0.064680219 0.59200001 0 -1
-0.04888105 -0.061545454 0.59300005 0 -1
-0.046948012 -0.062366962 0.59200001 0 -1
-0.0980049 -0.040227551 0.59300005 1 -1
-0.090563148 -0.043355975 0.59488893 1 -1
-0.083939023 -0.044706002 0.59666663 1 -1
-0.075389333 -0.044417534 0.59556246 1 -1
-0.067947961 -0.042754471 0.59538466 1 -1
-0.062252086 -0.041107822 0.5977 1 -1
-0.065605491 -0.038544014 0.59244448 1 -1
-0.059770286 -0.036675613 0.59488231 1 -1
-0.054177407 -0.034127124 0.5976522 1 -1
-0.056730293 -0.030203 0.59269994 1 -1
-0.052263711 -0.028055176 0.5958246 1 -1
-0.046743605 -0.025550425 0.59650004 1 -1
0.085678615 -0.027822353 0.59200001 0 -1
-0.04396056 -0.020241264 0.59586674 1 -1
-0.040870484 -0.014901784 0.59333336 1 -1
-0.038254358 -0.011735023 0.59569997 1 -1
-0.10434817 -0.0012999225 0.59350002 1 -1
-0.10319625 -0.0025078151 0.59700012 1 -1
-0.038180899 -0.0037388718 0.59538245 1 -1
-0.10441973 0.0026946131 0.59470004 1 -1
-0.10348604 0.0033521338 0.59700006 1 -1
-0.0377823 0.0030765801 0.59525001 1 -1
-0.10032123 0.010298382 0.59576929 1 -1
-0.092852362 0.012339507 0.59362972 1 -1
-0.086423859 0.012034887 0.59240001 1 -1
-0.040744349 0.012203308 0.59600008 1 -1
-0.039529026 0.0096287187 0.59525001 1 -1
0.018105172 -0.21467255 0.60133338 0 -1
-0.24136266 -0.20064418 0.60114288 0 -1
-0.23776582 -0.20336628 0.60070002 0 -1
-0.24937138 -0.19300017 0.60337508 0 -1
-0.24543005 -0.1970695 0.60223085 0 -1
-0.25815305 -0.18640578 0.60360533 0 -1
-0.25339848 -0.18988657 0.60367519 0 -1
-0.26659012 -0.17796628 0.60374206 0 -1
-0.26196194 -0.18194471 0.60345834 0 -1
-0.27499232 -0.17102954 0.60380012 0 -1
-0.270394 -0.17518193 0.60412502 0 -1
-0.28155264 -0.16264825 0.60348284 0 -1
-0.27900779 -0.16653529 0.60333335 0 -1
-0.28971258 -0.15270618 0.6022222 0 -1
-0.28508344 -0.15665366 0.60315382 0 -1
-0.17606188 -0.15230134 0.60000002 1 -1
-0.34395841 -0.14411432 0.60500002 0 -1
-0.29900452 -0.146055 0.6031875 0 -1
-0.29322013 -0.14978841 0.60384613 0 -1
-0.17640422 -0.14742678 0.60116667 1 -1
-0.17426635 -0.14655468 0.60042864 1 -1
-0.33801866 -0.13916552 0.60200006 0 -1
-0.33548892 -0.13729645 0.60000002 0 -1
-0.31204379 -0.13635865 0.60000002 0 -1
-0.30785137 -0.13959318 0.60364288 0 -1
-0.3029626 -0.14348067 0.60455561 0 -1
-0.17181985 -0.142093 0.60106069 1 -1
-0.1661052 -0.14124289 0.60016668 1 -1
-0.33070758 -0.13211332 0.60383338 0 -1
-0.32512707 -0.13015246 0.60166669 0 -1
-0.3145926 -0.13313742 0.60305011 0 -1
-0.31169069 -0.13551161 0.60600001 0 -1
-0.15261674 -0.129794 0.60000002 1 -1
-0.15167892 -0.12932509 0.60000002 1 -1
-0.16055728 -0.12090403 0.60400003 1 -1
-0.15541774 -0.12299331 0.60153651 1 -1
-0.15005699 -0.12294109 0.60031259 1 -1
-0.15514059 -0.11654392 0.60251111 1 -1
-0.14832611 -0.11606668 0.60106587 1 -1
-0.14347741 -0.11732884 0.60100001 1 -1
-0.15349688 -0.1114372 0.60420007 1 -1
-0.14885658 -0.11102705 0.60300004 1 -1
-0.098031417 -0.043284267 0.60460007 1 -1
-0.091879927 -0.045620609 0.60299999 1 -1
-0.083803803 -0.046491019 0.60344446 1 -1
-0.076954819 -0.046265244 0.60160005 1 -1
-0.068083152 -0.045523368 0.60049993 1 -1
-0.061024327 -0.041952819 0.59999996 1 -1
-0.057429411 -0.039061252 0.60000002 1 -1
-0.052375674 -0.034867179 0.59999996 1 -1
-0.049270496 -0.029823864 0.60000002 1 -1
-0.046457075 -0.027385568 0.60000002 1 -1
-0.042337876 -0.018694295 0.60100007 1 -1
-0.037082795 -0.01233594 0.60118192 1 -1
-0.10204395 -0.0010038313 0.60133338 1 -1
-0.03592268 -0.0043600751 0.60152948 1 -1
-0.10273185 0.0020241402 0.60345453 1 -1
-0.035949126 0.0029121863 0.60150003 1 -1
-0.10054278 0.0091190794 0.60266668 1 -1
-0.093839437 0.009657043 0.60200006 1 -1
-0.040280394 0.012346616 0.60300004 1 -1
-0.038661305 0.0095238965 0.60350001 1 -1
-0.38809374 -0.2387765 0.61500001 0 -1
0.017933495 -0.21734621 0.61150002 0 -1
-0.25776565 -0.18529707 0.60954553 0 -1
-0.25404948 -0.18822193 0.6085 0 -1
-0.26543483 -0.17725122 0.60970008 0 -1
-0.26216793 -0.18062651 0.61045456 0 -1
-0.27471653 -0.16995028 0.61104763 0 -1
-0.26875073 -0.17343208 0.61152542 0 -1
-0.28168243 -0.16299585 0.61160713 0 -1
-0.27881187 -0.16701318 0.61161542 0 -1
-0.28884324 -0.15358916 0.6122728 0 -1
-0.2856088 -0.15750957 0.61111116 0 -1
-0.35387358 -0.15009692 0.61400002 0 -1
-0.34927669 -0.14827646 0.6085 0 -1
-0.29815081 -0.14487027 0.61093754 0 -1
-0.29260969 -0.1485438 0.61107504 0 -1
-0.30744538 -0.13921742 0.61151159 0 -1
-0.30182984 -0.14288953 0.61152375 0 -1
-0.33844632 -0.13452245 0.61300004 0 -1
-0.33263353 -0.13188358 0.60966671 0 -1
-0.31509706 -0.13380808 0.6117273 0 -1
-0.3110055 -0.13533919 0.61044449 0 -1
-0.16500692 -0.08560586 0.61400002 1 -1
-0.13767508 -0.042770807 0.6128 0 -1
-0.13161452 -0.04371275 0.61070985 0 -1
-0.12540124 -0.042453386 0.61288577 0 -1
-0.11779027 -0.040692449 0.61400002 0 -1
-0.10112514 -0.042740762 0.60900003 0 -1
-0.13778879 -0.038359284 0.61330765 0 -1
-0.13208792 -0.037456032 0.61213636 0 -1
-0.12475365 -0.038745906 0.61296016 0 -1
-0.11827011 -0.039252914 0.61400002 0 -1
-0.18709022 0.0050580078 0.6146667 1 -1
-0.10181586 0.0038369668 0.61124998 1 -1
-0.099631988 0.0081952121 0.60979998 1 -1
-0.040681195 0.013895699 0.60900003 1 -1
-0.026140807 0.15124521 0.61400002 0 -1
-0.032857843 0.1531646 0.61400002 0 -1
-0.027624475 0.1524528 0.61500001 0 -1
-0.39285064 -0.24013542 0.62100005 0 -1
-0.39059389 -0.24333769 0.62050003 0 -1
-0.39022085 -0.1795622 0.62300003 0 -1
-0.27405021 -0.1688924 0.61722231 0 -1
-0.26979163 -0.17135611 0.61660004 0 -1
-0.28273243 -0.16310264 0.61930001 0 -1
-0.27870345 -0.16682829 0.6179167 0 -1
-0.29003823 -0.15504614 0.62012506 0 -1
-0.28662995 -0.15896274 0.61800003 0 -1
-0.3575314 -0.15179467 0.61700004 0 -1
-0.29870069 -0.14541605 0.61987501 0 -1
-0.29289639 -0.14930187 0.61911118 0 -1
-0.31245446 -0.13635118 0.62133336 0 -1
-0.30738273 -0.13938831 0.61951607 0 -1
-0.30273426 -0.14293392 0.61900002 0 -1
-0.3363151 -0.13250713 0.61700004 0 -1
-0.32050607 -0.13412046 0.62 0 -1
-0.31551272 -0.13494919 0.61936373 0 -1
-0.19157472 -0.072449096 0.62300003 1 -1
-0.19060098 -0.071475334 0.62300003 1 -1
-0.081301875 -0.06663879 0.6211766 0 -1
-0.078971736 -0.067003146 0.62066674 0 -1
-0.082381681 -0.063583069 0.62200004 0 -1
-0.16525713 -0.049071241 0.62290013 1 -1
-0.13357897 -0.048527513 0.61600006 0 -1
-0.16313009 -0.046794254 0.62283337 1 -1
-0.14413702 -0.041090094 0.62 0 -1
-0.14082207 -0.043578472 0.61723083 0 -1
-0.1355046 -0.0475647 0.61600006 0 -1
-0.14425328 -0.038698219 0.62050003 0 -1
-0.14047143 -0.036956646 0.61815006 0 -1
-0.1355046 -0.035048112 0.61600006 0 -1
-0.15335482 -0.026317429 0.62300009 1 -1
-0.15140732 -0.026682585 0.62300003 1 -1
-0.19290099 0.0054338425 0.62100005 1 -1
-0.18945992 0.004446377 0.61887509 1 -1
-0.10133102 0.0043523326 0.61790919 1 -1
-0.093443178 0.0083054127 0.61800003 1 -1
0.075963363 0.082437113 0.62100005 0 -1
-0.027481645 0.15183081 0.61900002 0 -1
-0.033911571 0.15374538 0.62099999 0 -1
-0.030122828 0.15271915 0.61963642 0 -1
-0.39521027 -0.24937068 0.62550002 0 -1
-0.40382648 -0.24144936 0.62991673 0 -1
-0.39672384 -0.24470988 0.62650001 0 -1
-0.40323502 -0.23938994 0.62925005 0 -1
-0.40805307 -0.22772902 0.63100004 0 -1
-0.40619481 -0.22974432 0.63066673 0 -1
-0.41692942 -0.21638705 0.63100004 0 -1
-0.41473821 -0.21627276 0.63066673 0 -1
-0.41742253 -0.21490766 0.63100004 0 -1
-0.41479164 -0.21505943 0.63000005 0 -1
-0.39375234 -0.17940232 0.63100004 0 -1
-0.28746343 -0.16034403 0.62400001 0 -1
-0.29097763 -0.15546982 0.625 0 -1
-0.30401328 -0.14416127 0.63000005 0 -1
-0.3002553 -0.1460955 0.62714285 0 -1
-0.29354119 -0.15034336 0.625 0 -1
-0.34832463 -0.13628371 0.63000005 0 -1
-0.31378958 -0.13653074 0.62887502 0 -1
-0.30808184 -0.14003506 0.62773532 0 -1
-0.30306852 -0.14376362 0.62400001 0 -1
-0.28825814 -0.13726839 0.63000005 0 -1
-0.28572506 -0.13814287 0.62900001 0 -1
-0.34513462 -0.13541842 0.62600005 0 -1
-0.32284394 -0.13473526 0.62737507 0 -1
-0.31717321 -0.13536519 0.62700003 0 -1
-0.24126558 -0.09706974 0.62900001 0 -1
-0.23576513 -0.096933 0.62726665 0 -1
-0.24080141 -0.093866408 0.62950003 0 -1
-0.23673263 -0.094292589 0.62778258 0 -1
-0.21999125 -0.074207604 0.62907141 1 -1
-0.21142957 -0.075854279 0.62700003 1 -1
-0.20554398 -0.074783929 0.62625003 1 -1
-0.19432053 -0.072565384 0.62400001 1 -1
-0.22460881 -0.071406901 0.63100004 1 -1
-0.19502081 -0.06762854 0.62507695 1 -1
-0.19090238 -0.067862913 0.62423074 1 -1
-0.20272662 -0.058024574 0.626926 1 -1
-0.1961645 -0.060152546 0.62649965 1 -1
-0.18992257 -0.060413778 0.62611109 1 -1
-0.21071525 -0.053768992 0.63018751 1 -1
-0.20468581 -0.05397002 0.62955171 1 -1
-0.19817311 -0.054701667 0.62887502 1 -1
-0.16847458 -0.049157739 0.62400001 1 -1
-0.16749926 -0.04818242 0.62400001 1 -1
-0.22589163 -0.043211333 0.63045007 1 -1
-0.22273034 -0.042736541 0.63000005 1 -1
-0.16619885 -0.04655689 0.62400001 1 -1
-0.1604645 -0.024893887 0.62700003 1 -1
-0.15584666 -0.026764423 0.62490904 1 -1
-0.14946654 -0.026359538 0.62414277 0 -1
-0.16839202 -0.020614535 0.63100004 1 -1
-0.16327366 -0.021751793 0.62758064 1 -1
-0.15655935 -0.022466779 0.62618518 1 -1
-0.14964543 -0.023454009 0.62519997 0 -1
-0.19526039 0.0037482386 0.62788892 1 -1
-0.19121286 0.0025381984 0.625 1 -1
-0.043982424 0.098159298 0.6310001 0 -1
-0.035871916 0.1544469 0.62655562 0 -1
-0.030162171 0.15272598 0.62800002 0 -1
-0.43563241 -0.25295937 0.63477778 0 -1
-0.42916262 -0.25229317 0.63255554 0 -1
-0.40869975 -0.24093163 0.63200003 0 -1
-0.40771192 -0.24043772 0.63200003 0 -1
-0.41157335 -0.23249924 0.63460004 0 -1
-0.4067241 -0.23599252 0.63200003 0 -1
-0.43386278 -0.22708243 0.63863635 0 -1
-0.42769435 -0.22734471 0.63712728 0 -1
-0.42004898 -0.22697699 0.63726205 0 -1
-0.4120056 -0.2288529 0.63369238 0 -1
-0.40771192 -0.23006558 0.63200003 0 -1
-0.43462342 -0.22108459 0.63830006 0 -1
-0.42801988 -0.21983373 0.63584 0 -1
-0.42024705 -0.2200961 0.63425004 0 -1
-0.4153657 -0.21871898 0.63275003 0 -1
-0.42656663 -0.21443482 0.63741672 0 -1
-0.42119667 -0.21435969 0.6333077 0 -1
-0.42321414 -0.20315026 0.63900006 0 -1
-0.39656746 -0.17835778 0.63844442 0 -1
-0.35511282 -0.13815852 0.63866669 0 -1
-0.3516399 -0.13658549 0.63599998 0 -1
-0.33632171 -0.13623309 0.63900006 0 -1
-0.31378806 -0.1362869 0.63383335 0 -1
-0.30907911 -0.13866356 0.63331819 0 -1
-0.34756365 -0.13476978 0.634 0 -1
-0.34131554 -0.13523433 0.63900006 0 -1
-0.32833159 -0.13523433 0.63900006 0 -1
-0.32357755 -0.1351767 0.63471431 0 -1
-0.31644934 -0.1356633 0.63540012 0 -1
-0.3098979 -0.13545136 0.63533336 0 -1
-0.25919306 -0.085724093 0.6360001 0 -1
-0.25283042 -0.083769701 0.63500005 0 -1
-0.24668476 -0.081457689 0.634 0 -1
-0.24470289 -0.079079404 0.634 0 -1
-0.22694041 -0.07152006 0.63200003 1 -1
-0.23389655 -0.050079089 0.63717651 1 -1
-0.22909442 -0.050869431 0.63615137 1 -1
-0.21174915 -0.050641239 0.63279998 1 -1
-0.20669004 -0.050775789 0.63200003 1 -1
-0.23430623 -0.046150181 0.63628572 1 -1
-0.22873162 -0.046151545 0.63322729 1 -1
-0.21857974 -0.04325873 0.6361112 1 -1
-0.21206903 -0.044867404 0.63486856 1 -1
-0.20759186 -0.044743042 0.634 1 -1
-0.23470928 -0.035309926 0.63412893 1 -1
-0.22870138 -0.035914872 0.63460302 1 -1
-0.24197198 -0.028100181 0.63544452 1 -1
-0.23619121 -0.027505387 0.63546169 1 -1
-0.22964633 -0.028222449 0.6363256 1 -1
-0.24103723 -0.01913834 0.63531244 1 -1
-0.23624226 -0.020105409 0.63713449 1 -1
-0.23031208 -0.020565018 0.63813055 1 -1
-0.19439879 -0.0014614436 0.6380626 1 -1
-0.19067439 -0.0017626454 0.6383636 1 -1
-0.17213991 -0.0014928977 0.63610005 1 -1
-0.20187631 0.0032865647 0.63770002 1 -1
-0.19796132 0.0021770557 0.63410002 1 -1
-0.19118692 0.00059191632 0.63300002 1 -1
-0.17433916 0.0014499974 0.63728577 1 -1
-0.2338708 0.050815899 0.63833338 0 -1
-0.23172274 0.05535572 0.63700002 0 -1
-0.23564766 0.059198543 0.63550001 0 -1
-0.23135898 0.056262899 0.63600004 0 -1
-0.065180488 0.093794934 0.63435715 0 -1
-0.060949899 0.0940907 0.63368005 0 -1
-0.065099992 0.097019956 0.63600004 0 -1
-0.059978515 0.097630776 0.63452631 0 -1
-0.048144531 0.098385416 0.63200003 0 -1
-0.045327399 0.10023139 0.63207144 0 -1
-0.040369295 0.15716271 0.634 0 -1
-0.035824027 0.15460062 0.63628578 0 -1
-0.03041281 0.15295729 0.63299996 0 -1
-0.46074933 -0.24248654 0.64400005 0 -1
-0.46221846 -0.22740756 0.648 0 -1
-0.4503426 -0.22513165 0.64557141 0 -1
-0.44324484 -0.22598846 0.64306253 0 -1
-0.4369272 -0.22811848 0.64055562 0 -1
-0.45098478 -0.22059211 0.64662069 0 -1
-0.44391996 -0.21971379 0.64381492 0 -1
-0.43719831 -0.21877892 0.64130002 0 -1
-0.43187904 -0.21647242 0.64000005 0 -1
-0.43383378 -0.21230437 0.644261 0 -1
-0.43015838 -0.21242197 0.64200002 0 -1
-0.43382892 -0.20461309 0.64641178 0 -1
-0.42795843 -0.20270713 0.64386487 0 -1
-0.42291701 -0.20121416 0.64311117 0 -1
-0.41954768 -0.19654223 0.64547062 0 -1
-0.40885442 -0.18604797 0.64550006 0 -1
-0.40523294 -0.18558115 0.64233333 0 -1
-0.40868691 -0.18052928 0.64683336 0 -1
-0.4040404 -0.17967756 0.64357501 0 -1
-0.3984409 -0.1775246 0.64060003 0 -1
-0.4031001 -0.17272621 0.64713162 0 -1
-0.39626122 -0.17180768 0.64432657 0 -1
-0.40212628 -0.16579616 0.64799988 0 -1
-0.39609307 -0.1648815 0.64727503 0 -1
-0.39082727 -0.16650127 0.64599997 0 -1
-0.38601267 -0.15521416 0.64799988 0 -1
-0.37944081 -0.15525314 0.64605004 0 -1
-0.37276345 -0.15455188 0.64358622 0 -1
-0.37058666 -0.15040104 0.64579999 0 -1
-0.36482531 -0.14561026 0.64366668 0 -1
-0.36252037 -0.14176513 0.6451 0 -1
-0.35761902 -0.13758497 0.64377785 0 -1
-0.33584768 -0.13644628 0.64000005 0 -1
-0.35469252 -0.13525078 0.64480001 0 -1
-0.35126978 -0.13519187 0.6426 0 -1
-0.32984573 -0.13544595 0.64000005 0 -1
-0.22578694 -0.034004737 0.6401667 1 -1
-0.2238111 -0.036413621 0.64000005 1 -1
-0.2260773 -0.027555753 0.64127284 1 -1
-0.2238552 -0.024524122 0.64300001 1 -1
-0.23531486 -0.016407091 0.64000005 1 -1
-0.22648048 -0.020660236 0.64121222 1 -1
-0.22089015 -0.019962866 0.6422286 1 -1
-0.24060811 -0.014413419 0.64033341 1 -1
-0.23828079 -0.014503091 0.64027268 1 -1
-0.21703501 -0.013030317 0.64390916 1 -1
-0.21514414 -0.011476741 0.64400005 1 -1
-0.21291924 -0.002019471 0.64579999 1 -1
-0.20201226 -0.0014073161 0.64225006 1 -1
-0.19703054 -0.0034062699 0.64059097 1 -1
-0.1900159 -0.003069507 0.6401667 1 -1
-0.21190445 0.0027774023 0.64615381 1 -1
-0.20511542 0.0031701755 0.64175004 1 -1
-0.23790598 0.055022847 0.64240003 0 -1
-0.24141364 0.056638122 0.64480007 0 -1
-0.041751668 0.15865007 0.64000005 0 -1
-0.035875 0.15469033 0.64225006 0 -1
-0.031748403 0.15364844 0.64000005 0 -1
-0.46432656 -0.22509572 0.64900005 0 -1
-0.46331218 -0.22458853 0.64900005 0 -1
-0.46128339 -0.22357413 0.64900005 0 -1
-0.42543593 -0.1686482 0.65366673 0 -1
-0.41966695 -0.17048983 0.65200019 0 -1
-0.41186336 -0.1711362 0.64993471 0 -1
-0.40636128 -0.17024601 0.64900011 0 -1
-0.42707762 -0.16332035 0.65409309 0 -1
-0.4209061 -0.16411948 0.65335292 0 -1
-0.41110873 -0.16569421 0.65123814 0 -1
-0.40470344 -0.16320603 0.64989191 0 -1
-0.39726779 -0.16140303 0.64907706 0 -1
-0.42613274 -0.1590959 0.65500003 0 -1
-0.42306143 -0.1590959 0.65500003 0 -1
-0.40242791 -0.15621383 0.65153134 0 -1
-0.3963843 -0.15560442 0.64998019 0 -1
-0.38951501 -0.15424031 0.64900011 0 -1
-0.40145844 -0.15115245 0.65275002 0 -1
-0.39521667 -0.15116505 0.65090913 0 -1
-0.39087716 -0.1517857 0.65000004 0 -1
-0.36186382 -0.11479451 0.65207696 0 -1
-0.35779929 -0.11581649 0.65075004 0 -1
-0.097793914 0.14318503 0.65466666 0 -1
-0.093704894 0.14236623 0.65306246 0 -1
-0.097465001 0.14542086 0.65474999 0 -1
-0.094358608 0.14536555 0.65450007 0 -1
-0.46922296 -0.19324955 0.65800005 0 -1
-0.46986973 -0.19121443 0.65866667 0 -1
-0.46784216 -0.17902602 0.66150004 0 -1
-0.43439871 -0.16219535 0.65733337 0 -1
-0.43139732 -0.16344014 0.65600002 0 -1
-0.43374157 -0.15931012 0.65800005 0 -1
-0.42834064 -0.1581797 0.65686673 0 -1
-0.097479977 0.14655274 0.65600002 0 -1
-0.11435289 0.15621145 0.66216666 0 -1
-0.45891809 -0.13786303 0.6695556 0 -1
-0.45151624 -0.12302927 0.67045826 0 -1
-0.44572374 -0.12195604 0.67000002 0 -1
-0.44944206 -0.11914321 0.671 0 -1
-0.44356847 -0.11693778 0.67028254 0 -1
-0.43885863 -0.11666177 0.67000002 0 -1
-0.36297172 -0.070989981 0.66400003 0 -1
-0.11804175 0.15941025 0.66400003 0 -1
-0.11492824 0.16148593 0.66400003 0 -1
-0.45915651 -0.12230489 0.67320842 0 -1
-0.45473918 -0.12189022 0.67212498 0 -1
-0.45930988 -0.11911441 0.67439997 0 -1
-0.45066801 -0.11620947 0.67277783 0 -1
-0.44567862 -0.11335481 0.67212498 0 -1
-0.44902855 -0.11103746 0.67400002 0 -1
-0.44507578 -0.11108712 0.67288888 0 -1
-0.44135502 -0.10114133 0.67474997 0 -1
-0.43902057 -0.10102949 0.67400002 0 -1
-0.2565527 0.10039562 0.67900002 0 -1
-0.25088304 0.10170455 0.67846149 0 -1
-0.24733178 0.10062977 0.67700005 0 -1
-0.1687479 0.16806991 0.67800003 0 -1
-0.47846764 -0.091033772 0.68600005 0 -1
-0.46235305 -0.091568932 0.68200004 0 -1
-0.2583974 0.10226103 0.6820001 0 -1
-0.25305074 0.10388458 0.68100005 0 -1
-0.2575303 0.10472344 0.68300003 0 -1
-0.2539553 0.10457011 0.68200004 0 -1
-0.27246088 0.119296 0.68700004 0 -1
-0.26800588 0.11859041 0.68659103 0 -1
-0.26804861 0.12117602 0.68670005 0 -1
-0.21674703 0.14710617 0.68400002 0 -1
-0.21181016 0.14719552 0.68252385 0 -1
-0.48994127 -0.048753273 0.69466668 0 -1
-0.48434561 -0.048659038 0.69442862 0 -1
-0.48996565 -0.045902979 0.69444448 0 -1
-0.48435324 -0.045782525 0.69396156 0 -1
-0.47985658 -0.047146961 0.69500005 0 -1
-0.42456049 -0.027893942 0.68900001 0 -1
-0.42035758 -0.027156089 0.68815392 0 -1
-0.30428839 0.10324996 0.69100004 0 -1
-0.3002094 0.10297296 0.69155556 0 -1
-0.29564807 0.10216992 0.69100004 0 -1
-0.30706602 0.10544533 0.69300002 0 -1
-0.30191961 0.10463197 0.69300002 0 -1
-0.27568555 0.11786513 0.68952948 0 -1
-0.26805118 0.11670566 0.68808341 0 -1
-0.26317933 0.11893196 0.68800002 0 -1
-0.27557713 0.1222253 0.69050008 0 -1
-0.26794159 0.12306491 0.68872225 0 -1
-0.26317933 0.12054499 0.68800002 0 -1
-0.49760199 -0.050852474 0.69900006 0 -1
-0.49257678 -0.05050052 0.69717652 0 -1
-0.48386112 -0.050412279 0.69633341 0 -1
-0.47945917 -0.048846584 0.69600004 0 -1
-0.49780458 -0.044966403 0.70055556 0 -1
-0.49216798 -0.043114487 0.69866681 0 -1
-0.48344597 -0.043753408 0.69720012 0 -1
-0.47925889 -0.047248717 0.69650006 0 -1
-0.49237028 -0.039941192 0.70200002 0 -1
-0.31455645 0.10741474 0.69700003 0 -1
-0.31084162 0.10726064 0.69600004 0 -1
-0.32880163 0.11877796 0.70300001 0 -1
-0.32635579 0.11776508 0.70187509 0 -1
-0.32587901 0.1205918 0.70183343 0 -1
-0.50159198 -0.027068283 0.70679992 0 -1
-0.49936849 -0.022828743 0.70725 0 -1
-0.33091989 0.11949711 0.70400006 0 -1
-0.32808417 0.12738031 0.70500004 0 -1
-0.32516998 0.12675385 0.70414293 0 -1
-0.32808417 0.12848222 0.70500004 0 -1
-0.3244997 0.13046505 0.70479172 0 -1
-0.42437646 0.079163954 0.7383334 0 -1
-0.42302272 0.079342648 0.74000001 0 -1
-0.43315548 0.080771238 0.74250007 0 -1
-0.43578458 0.081956454 0.74800003 0 -1
-0.43034506 0.081006937 0.74466664 0 -1
-0.43691388 0.083009809 0.75440001 0 -1
-0.43163115 0.081913456 0.75300002 0 -1
-0.44335359 0.085162617 0.76100004 0 -1
-0.4491795 0.087486789 0.77100003 0 -1
-0.44355321 0.086281709 0.77100009 0 -1
-0.44588882 0.087288886 0.78000003 0 -1
-0.45186839 0.088973619 0.77980006 0 -1
-0.46115747 0.092170611 0.79050004 0 -1
-0.45462561 0.090310402 0.78775001 0 -1
-0.46432695 0.094174214 0.79700005 0 -1
